0.446917 -0.005219 -0.001336 186 0 255
0.438070 -0.016984 0.296803 175 0 255
0.609689 -0.007795 0.079474 255 0 116
0.436017 0.146399 0.176234 173 0 255
0.437791 -0.021417 0.002097 175 0 255
0.563975 0.033659 0.253736 255 0 174
0.582895 0.095067 0.132820 255 0 150
0.628571 0.002714 0.159639 255 0 92
0.595108 -0.004211 0.060910 255 0 134
0.462948 -0.030763 0.296467 207 0 255
0.473923 -0.081981 0.269900 221 0 255
0.337370 -0.002701 0.270026 47 0 255
0.410881 0.105618 0.051264 141 0 255
0.512418 0.068070 0.272351 255 0 239
0.411585 0.148761 0.112536 141 0 255
0.368918 0.063149 0.267242 87 0 255
0.450599 -0.063341 0.010051 191 0 255
0.419726 -0.004238 0.001700 152 0 255
0.608548 0.069731 0.141652 255 0 117
0.609862 0.016699 0.219593 255 0 116
0.545008 0.059713 0.263046 255 0 198
0.423438 0.008515 0.298622 157 0 255
0.573778 -0.047109 0.248569 255 0 161
0.344962 -0.102612 0.081516 57 0 255
0.504901 -0.141857 0.132377 255 0 249
0.416308 0.007242 0.001272 147 0 255
0.340309 0.105525 0.196534 51 0 255
0.566207 0.082640 0.060236 255 0 171
0.577549 -0.104559 0.153798 255 0 157
0.488902 -0.148375 0.144383 240 0 255
0.514986 0.099784 0.248628 255 0 236
0.271624 -0.009537 0.169102 0 35 255
0.271459 0.008191 0.161572 0 36 255
0.349435 -0.086520 0.058230 62 0 255
0.482470 -0.010384 0.004246 232 0 255
0.314727 -0.061088 0.229113 18 0 255
0.427601 -0.001880 0.300506 162 0 255
0.620018 0.049225 0.152274 255 0 103
0.613714 0.057751 0.131341 255 0 111
0.485764 0.073576 0.281657 236 0 255
0.571522 0.018720 0.040145 255 0 164
0.449788 -0.005700 0.001443 190 0 255
0.445249 -0.024833 0.003612 184 0 255
0.516850 0.069077 0.268055 255 0 234
0.488279 -0.049164 0.013358 239 0 255
0.531892 0.099930 0.061236 255 0 215
0.395329 0.140161 0.173743 121 0 255
0.448979 0.148767 0.132586 189 0 255
0.395052 0.050003 0.015648 120 0 255
0.446530 0.148305 0.162858 186 0 255
0.284323 0.006511 0.205793 0 19 255
0.299733 0.082687 0.157121 0 0 255
0.621769 -0.012175 0.110975 255 0 100
0.543602 0.032265 0.272033 255 0 200
0.485733 0.036586 0.007162 236 0 255
0.596364 0.039420 0.075265 255 0 133
0.338180 -0.097321 0.093863 48 0 255
0.501339 0.016292 0.295595 255 0 253
0.537170 -0.124362 0.098557 255 0 208
0.387542 -0.005228 0.288928 111 0 255
0.404357 -0.004303 0.293876 132 0 255
0.282943 -0.055806 0.135018 0 21 255
0.531575 0.128518 0.195959 255 0 215
0.506116 0.136910 0.107912 255 0 247
0.433126 0.036053 0.294568 169 0 255
0.303914 -0.079173 0.184476 5 0 255
0.473232 0.076425 0.278606 220 0 255
0.450886 0.000879 -0.001087 191 0 255
0.622460 -0.029882 0.122860 255 0 100
0.598263 0.016744 0.064177 255 0 130
0.499844 -0.126300 0.227881 254 0 255
0.462622 -0.042254 0.290277 206 0 255
0.446465 0.008781 -0.001194 186 0 255
0.544212 0.092422 0.243425 255 0 199
0.554997 0.115873 0.187441 255 0 185
0.399215 -0.120968 0.080528 126 0 255
0.441802 -0.005990 0.302521 180 0 255
0.466745 -0.082442 0.028838 212 0 255
0.620975 -0.055633 0.132065 255 0 101
0.398721 -0.103029 0.247717 125 0 255
0.467610 0.023542 0.297820 213 0 255
0.454710 0.071431 0.279646 196 0 255
0.478601 -0.038569 0.007399 227 0 255
0.488901 0.123883 0.067683 240 0 255
0.564031 0.047049 0.256225 255 0 174
0.441834 -0.028761 0.295737 180 0 255
0.330440 0.073687 0.062771 38 0 255
0.606759 -0.069640 0.116739 255 0 120
0.351159 -0.117203 0.196231 65 0 255
0.587255 0.070461 0.210327 255 0 144
0.558448 -0.032285 0.269748 255 0 181
0.444046 0.131685 0.074051 183 0 255
0.441887 0.009394 0.002628 180 0 255
0.373613 0.046462 0.281096 93 0 255
0.611659 0.045005 0.105595 255 0 113
0.273253 0.002816 0.186376 0 33 255
0.576166 0.106089 0.171983 255 0 158
0.347482 0.063942 0.253537 60 0 255
0.392570 0.058996 0.020480 117 0 255
0.477810 -0.148411 0.159272 226 0 255
0.507234 -0.138977 0.128174 255 0 246
0.532011 0.100541 0.235013 255 0 215
0.381853 0.059938 0.276403 104 0 255
0.418953 0.030445 0.297010 151 0 255
0.533181 0.096189 0.054080 255 0 213
0.481496 -0.081544 0.275302 230 0 255
0.411850 -0.117109 0.063594 142 0 255
0.511341 0.132260 0.202966 255 0 241
0.333413 0.107394 0.190603 42 0 255
0.588753 0.095316 0.162744 255 0 142
0.332088 -0.098952 0.213959 40 0 255
0.491632 0.033715 0.292651 243 0 255
0.597872 -0.014031 0.229937 255 0 131
0.480416 -0.125545 0.076888 229 0 255
0.330795 0.085953 0.076018 39 0 255
0.325667 -0.057276 0.247380 32 0 255
0.602641 -0.080568 0.166410 255 0 125
0.355606 -0.030632 0.276849 70 0 255
0.494958 0.084752 0.269389 247 0 255
0.440818 0.007141 0.303388 179 0 255
0.483106 -0.041658 0.004385 232 0 255
0.382112 -0.072573 0.265279 104 0 255
0.380974 -0.080954 0.263300 103 0 255
0.544259 -0.082741 0.247576 255 0 199
0.503699 -0.035383 0.288270 255 0 250
0.590111 -0.064815 0.090161 255 0 141
0.484906 0.016503 0.295900 235 0 255
0.376724 -0.015075 0.287914 97 0 255
0.440021 -0.135177 0.083688 178 0 255
0.456875 -0.132789 0.219628 199 0 255
0.340287 -0.074787 0.059164 51 0 255
0.538994 0.128496 0.120738 255 0 206
0.484713 -0.104470 0.254832 234 0 255
0.418642 -0.131837 0.085809 150 0 255
0.501419 0.026094 0.293897 255 0 253
0.275690 0.032182 0.135217 0 30 255
0.531250 0.129926 0.179811 255 0 215
0.378570 0.093343 0.249719 100 0 255
0.617356 0.016126 0.102565 255 0 106
0.394347 0.036833 0.011277 120 0 255
0.450410 0.000826 0.000657 191 0 255
0.324970 -0.098639 0.101187 31 0 255
0.357634 -0.123207 0.189131 73 0 255
0.507695 -0.085264 0.266191 255 0 245
0.479384 0.104754 0.255134 228 0 255
0.582344 0.102477 0.156906 255 0 151
0.547602 -0.110368 0.208282 255 0 195
0.477390 0.033969 0.006355 225 0 255
0.613300 -0.020230 0.209950 255 0 111
0.541553 -0.116369 0.206910 255 0 202
0.284594 -0.004859 0.205420 0 19 255
0.536543 -0.010078 0.019852 255 0 209
0.578142 0.075036 0.079872 255 0 156
0.394396 0.131111 0.100548 120 0 255
0.352748 -0.103352 0.225758 67 0 255
0.394436 0.066781 0.022567 120 0 255
0.468999 -0.009342 0.298071 214 0 255
0.512696 0.023506 0.009182 255 0 239
0.278343 -0.048285 0.144407 0 27 255
0.304861 -0.076375 0.199299 6 0 255
0.349893 -0.127897 0.149666 63 0 255
0.443853 0.130565 0.071394 182 0 255
0.443278 0.004783 0.300049 182 0 255
0.489998 -0.048101 0.012725 241 0 255
0.510569 0.139255 0.176311 255 0 242
0.519148 -0.113914 0.216626 255 0 231
0.377894 -0.024665 0.287419 99 0 255
0.457531 -0.146920 0.179939 200 0 255
0.411190 -0.147481 0.151131 141 0 255
0.494093 0.137323 0.192652 246 0 255
0.309860 -0.052341 0.070423 12 0 255
0.568585 -0.106971 0.188303 255 0 168
0.431942 0.004020 -0.000608 167 0 255
0.617093 -0.029794 0.102631 255 0 106
0.354051 0.029185 0.026982 68 0 255
0.487992 0.041187 0.287503 239 0 255
0.318909 0.093026 0.196279 24 0 255
0.597248 -0.039435 0.223440 255 0 132
0.373640 0.136805 0.116559 93 0 255
0.499100 -0.046913 0.015869 253 0 255
0.482237 -0.023835 0.293737 231 0 255
0.429023 0.028529 0.298213 164 0 255
0.521381 0.035604 0.014535 255 0 228
0.431254 -0.089115 0.270815 166 0 255
0.389170 0.120363 0.073288 113 0 255
0.485242 -0.144902 0.132137 235 0 255
0.366481 0.025867 0.021230 84 0 255
0.380646 0.006134 0.291359 102 0 255
0.458298 -0.056972 0.284626 201 0 255
0.321541 0.098168 0.120932 27 0 255
0.423118 0.009525 0.000125 156 0 255
0.323811 0.101164 0.187174 30 0 255
0.344316 0.095266 0.225661 56 0 255
0.283123 -0.020011 0.100363 0 21 255
0.464350 -0.026285 0.001191 209 0 255
0.395388 0.058272 0.020966 121 0 255
0.450059 0.000238 -0.001151 190 0 255
0.446097 -0.007069 0.301834 185 0 255
0.442475 0.050256 0.291053 181 0 255
0.422725 0.141159 0.098566 156 0 255
0.538509 -0.035179 0.025175 255 0 206
0.425167 -0.113950 0.241398 159 0 255
0.343341 -0.047099 0.258037 55 0 255
0.384458 -0.075675 0.033855 107 0 255
0.480633 0.001396 0.295688 229 0 255
0.327480 -0.090220 0.211641 35 0 255
0.273599 -0.005648 0.146193 0 33 255
0.280102 -0.042587 0.120388 0 25 255
0.360301 0.087258 0.048723 76 0 255
0.590822 0.070200 0.215037 255 0 140
0.509236 0.133689 0.098562 255 0 243
0.615903 -0.044776 0.109785 255 0 108
0.298583 0.082189 0.124162 0 1 255
0.292743 0.025377 0.087852 0 9 255
0.573174 0.033034 0.254030 255 0 162
0.497851 0.008343 0.296168 251 0 255
0.431941 -0.056378 0.292177 167 0 255
0.336159 -0.026784 0.262791 46 0 255
0.268422 -0.008533 0.149165 0 39 255
0.454093 0.071874 0.021173 195 0 255
0.446061 -0.120012 0.063670 185 0 255
0.503649 0.077856 0.034168 255 0 251
0.509465 0.124718 0.216422 255 0 243
0.281995 0.036714 0.196231 0 22 255
0.413139 0.139630 0.200313 143 0 255
0.451890 0.084680 0.275984 193 0 255
0.428207 -0.021940 0.295627 163 0 255
0.348021 -0.117423 0.106129 61 0 255
0.454347 -0.007230 0.000285 196 0 255
0.371960 0.033485 0.278983 91 0 255
0.474091 0.010574 0.297981 221 0 255
0.434325 0.094508 0.034591 170 0 255
0.577801 -0.011544 0.253849 255 0 156
0.373510 -0.044837 0.020310 93 0 255
0.416735 -0.115280 0.058076 148 0 255
0.479338 0.001923 0.000366 228 0 255
0.276995 -0.013735 0.191107 0 29 255
0.604755 0.033114 0.075458 255 0 122
0.285976 -0.063377 0.164351 0 17 255
0.595272 -0.066093 0.090894 255 0 134
0.627054 -0.027564 0.174630 255 0 94
0.348779 -0.020230 0.277868 62 0 255
0.270203 0.040307 0.145960 0 37 255
0.616983 -0.048989 0.139968 255 0 107
0.404963 -0.075319 0.023891 133 0 255
0.572325 0.045678 0.048093 255 0 163
0.296348 0.033547 0.078334 0 4 255
0.456145 0.049291 0.289169 198 0 255
0.314164 0.019759 0.057364 18 0 255
0.279822 0.040360 0.153424 0 25 255
0.398863 -0.018998 0.008515 125 0 255
0.423280 0.032065 0.007283 156 0 255
0.466942 0.021918 0.298782 212 0 255
0.352252 -0.001568 0.020970 66 0 255
0.456708 -0.015419 0.301474 199 0 255
0.367210 -0.117760 0.214288 85 0 255
0.354813 0.122507 0.125761 69 0 255
0.521860 -0.024892 0.282785 255 0 227
0.560571 -0.052933 0.042969 255 0 178
0.452151 0.004887 0.298227 193 0 255
0.540878 0.018003 0.278679 255 0 203
0.444713 -0.143932 0.114184 184 0 255
0.518631 -0.104880 0.058939 255 0 232
0.494650 -0.008877 0.004570 247 0 255
0.559442 -0.074822 0.060284 255 0 180
0.324396 -0.074638 0.072373 31 0 255
0.282194 -0.026521 0.199808 0 22 255
0.451495 -0.000621 0.301693 192 0 255
0.450949 0.053966 0.286503 191 0 255
0.278756 0.037458 0.134170 0 26 255
0.346010 -0.093337 0.068824 58 0 255
0.287295 -0.050421 0.187941 0 15 255
0.446714 -0.117157 0.052804 186 0 255
0.418192 0.147950 0.133034 150 0 255
0.414415 -0.015800 0.294930 145 0 255
0.536511 0.045570 0.274804 255 0 209
0.377518 0.038937 0.019060 98 0 255
0.450970 -0.116269 0.051112 192 0 255
0.431446 -0.043973 0.009571 167 0 255
0.513835 -0.001361 0.287564 255 0 238
0.451191 0.004014 0.003439 192 0 255
0.336906 0.004570 0.267971 47 0 255
0.446050 0.005261 0.298503 185 0 255
0.448498 -0.001032 -0.001397 188 0 255
0.537556 -0.092504 0.243687 255 0 207
0.384789 -0.119677 0.077072 107 0 255
0.518446 -0.054686 0.277868 255 0 232
0.499454 0.143564 0.112267 253 0 255
0.488073 -0.029930 0.008615 239 0 255
0.591908 0.046141 0.234350 255 0 138
0.568249 -0.084015 0.072249 255 0 168
0.398790 0.075042 0.269919 125 0 255
0.384322 0.126951 0.097167 107 0 255
0.290030 -0.011715 0.223452 0 12 255
0.552858 -0.034736 0.268011 255 0 188
0.590656 0.037651 0.228425 255 0 140
0.392501 0.062785 0.278974 117 0 255
0.487395 -0.036331 0.009847 238 0 255
0.313805 0.084503 0.201103 17 0 255
0.490417 0.099204 0.259002 242 0 255
0.292374 0.067238 0.171553 0 9 255
0.334987 0.084760 0.229915 44 0 255
0.563435 -0.053920 0.044054 255 0 175
0.448579 -0.013820 -0.000436 188 0 255
0.274164 -0.006166 0.177786 0 32 255
0.528014 -0.004334 0.012664 255 0 220
0.278051 0.034531 0.119771 0 27 255
0.530878 0.023942 0.284121 255 0 216
0.443181 0.121946 0.063081 182 0 255
0.284826 0.060344 0.143488 0 19 255
0.536363 0.111105 0.082843 255 0 209
0.507037 -0.015269 0.011247 255 0 246
0.469168 -0.146612 0.179565 215 0 255
0.441983 0.043613 0.006638 180 0 255
0.342122 -0.058771 0.047372 53 0 255
0.422247 -0.148206 0.155552 155 0 255
0.608761 -0.049062 0.104817 255 0 117
0.559524 -0.085733 0.225528 255 0 180
0.444287 0.000144 -0.001448 183 0 255
0.473537 -0.128767 0.075771 220 0 255
0.429228 -0.010136 0.302257 164 0 255
0.307623 -0.043463 0.227868 9 0 255
0.578614 0.094142 0.092659 255 0 155
0.473876 0.024801 0.297867 221 0 255
0.435473 -0.001730 0.300071 172 0 255
0.427931 0.147999 0.170945 162 0 255
0.603013 0.018617 0.221753 255 0 124
0.421810 -0.149077 0.175432 154 0 255
0.578509 0.022914 0.254404 255 0 155
0.376556 -0.042308 0.281520 97 0 255
0.303612 -0.030020 0.063623 4 0 255
0.626536 -0.029433 0.141527 255 0 94
0.344979 0.009054 0.273661 57 0 255
0.586678 0.049083 0.229017 255 0 145
0.288195 -0.044378 0.108350 0 14 255
0.470526 -0.026596 0.293094 216 0 255
0.526946 -0.003879 0.284125 255 0 221
0.414165 0.008548 0.298692 145 0 255
0.407477 0.072267 0.025529 136 0 255
0.557387 -0.057059 0.045332 255 0 182
0.492717 0.097057 0.040986 245 0 255
0.348664 -0.076114 0.061421 61 0 255
0.320386 0.070724 0.073608 26 0 255
0.626339 0.037458 0.161082 255 0 95
0.357037 0.110848 0.083859 72 0 255
0.447658 0.017591 0.298897 187 0 255
0.386595 -0.124616 0.092459 110 0 255
0.558939 -0.032129 0.035437 255 0 180
0.428556 0.149516 0.152038 163 0 255
0.506069 -0.124278 0.214005 255 0 247
0.580431 0.037338 0.248937 255 0 153
0.294269 -0.030928 0.086527 0 7 255
0.582185 0.051651 0.066104 255 0 151
0.513438 -0.020931 0.011509 255 0 238
0.467245 -0.127078 0.219885 212 0 255
0.385013 -0.081022 0.039457 108 0 255
0.528456 -0.132670 0.120799 255 0 219
0.414014 -0.043724 0.010203 145 0 255
0.625057 -0.027562 0.137222 255 0 96
0.407640 -0.147884 0.137699 136 0 255
0.603772 -0.064761 0.116314 255 0 123
0.324557 -0.010310 0.043909 31 0 255
0.466324 0.011714 0.004531 211 0 255
0.409218 -0.003365 0.297760 138 0 255
0.472485 0.013906 0.299750 219 0 255
0.420417 -0.016940 -0.000088 153 0 255
0.271864 0.016461 0.133336 0 35 255
0.326177 -0.096734 0.098765 33 0 255
0.629748 0.011750 0.158106 255 0 90
0.467623 0.039080 0.290433 213 0 255
0.334043 0.007700 0.035296 43 0 255
0.572537 -0.032939 0.044315 255 0 163
0.337973 0.083917 0.235284 48 0 255
0.319496 0.056058 0.235458 24 0 255
0.432561 -0.070434 0.019192 168 0 255
0.417687 -0.019825 0.295204 149 0 255
0.431768 0.050016 0.009520 167 0 255
0.341176 0.055274 0.250677 52 0 255
0.484870 0.137304 0.104205 235 0 255
0.486648 -0.006757 0.005593 237 0 255
0.551571 0.092825 0.071174 255 0 190
0.327414 0.106332 0.190861 34 0 255
0.593844 0.019998 0.066641 255 0 136
0.476831 0.127304 0.221171 224 0 255
0.480625 -0.113426 0.249744 229 0 255
0.449062 0.001921 0.001551 189 0 255
0.561217 0.050412 0.045123 255 0 177
0.294147 0.022140 0.083096 0 7 255
0.611020 0.013475 0.216138 255 0 114
0.472665 0.009427 0.294563 219 0 255
0.456938 -0.012355 0.298493 199 0 255
0.473832 -0.148830 0.124857 221 0 255
0.556353 -0.052907 0.043382 255 0 184
0.557459 -0.117417 0.134123 255 0 182
0.414655 -0.066067 0.015518 145 0 255
0.470571 0.004738 0.300248 216 0 255
0.485048 -0.135396 0.210579 235 0 255
0.521570 -0.086141 0.264542 255 0 228
0.502397 -0.143326 0.174998 255 0 252
0.413898 -0.005623 0.295857 144 0 255
0.453724 0.021483 0.002319 195 0 255
0.514048 -0.081140 0.264296 255 0 237
0.441520 -0.035966 0.003668 179 0 255
0.622926 -0.016959 0.180966 255 0 99
0.454112 0.010291 -0.002017 195 0 255
0.479592 0.146226 0.123442 228 0 255
0.456584 0.031691 0.006434 199 0 255
0.450020 -0.002593 0.302000 190 0 255
0.500098 0.095236 0.044720 254 0 255
0.502338 0.018221 0.001421 255 0 252
0.527271 -0.000973 0.282122 255 0 221
0.499527 0.008879 0.291747 253 0 255
0.537483 -0.125461 0.183924 255 0 208
0.425513 0.022821 0.000844 159 0 255
0.546097 -0.123827 0.130169 255 0 197
0.280963 -0.046412 0.138540 0 24 255
0.514636 -0.037618 0.285938 255 0 237
0.449537 0.001389 0.299779 190 0 255
0.551389 0.005135 0.025864 255 0 190
0.499389 0.017261 0.293007 253 0 255
0.451018 0.135742 0.088184 192 0 255
0.424665 -0.033772 0.006373 158 0 255
0.533146 -0.057613 0.265195 255 0 213
0.297233 0.032093 0.073225 0 3 255
0.412033 -0.023473 0.296827 142 0 255
0.516829 0.130529 0.103434 255 0 234
0.481287 -0.067081 0.279843 230 0 255
0.576385 -0.022413 0.046689 255 0 158
0.431527 0.120260 0.237020 167 0 255
0.271567 0.006250 0.166478 0 35 255
0.597612 0.073551 0.105774 255 0 131
0.363671 -0.028068 0.278056 81 0 255
0.319117 -0.003470 0.044991 24 0 255
0.541749 0.094030 0.236520 255 0 202
0.305239 0.045899 0.078417 6 0 255
0.405526 0.059690 0.278644 134 0 255
0.304559 -0.019306 0.067917 5 0 255
0.387427 -0.027498 0.292414 111 0 255
0.621451 0.005615 0.186400 255 0 101
0.459743 -0.103326 0.255845 203 0 255
0.424513 -0.103504 0.042043 158 0 255
0.361403 0.079514 0.255163 78 0 255
0.510456 0.018768 0.009296 255 0 242
0.450629 -0.053799 0.009776 191 0 255
0.552661 -0.025958 0.269240 255 0 188
0.462033 0.136947 0.099927 206 0 255
0.426361 0.034330 0.294837 160 0 255
0.516460 0.127912 0.200837 255 0 234
0.320237 -0.051355 0.056919 25 0 255
0.536293 0.106716 0.079959 255 0 209
0.348254 0.111677 0.091362 61 0 255
0.404969 -0.109095 0.246079 133 0 255
0.297077 -0.052743 0.205855 0 3 255
0.405524 0.031090 0.293620 134 0 255
0.324742 0.057880 0.052463 31 0 255
0.282931 -0.054571 0.148824 0 21 255
0.593237 0.002018 0.056436 255 0 137
0.563615 0.048880 0.255428 255 0 174
0.564511 -0.088817 0.229139 255 0 173
0.587897 0.061151 0.223603 255 0 143
0.444942 -0.013831 0.300475 184 0 255
0.587156 -0.061474 0.221381 255 0 144
0.434369 0.085695 0.026917 170 0 255
0.412820 0.033832 0.007188 143 0 255
0.289706 -0.061826 0.144745 0 12 255
0.583755 -0.102286 0.172881 255 0 149
0.469308 -0.002111 0.301273 215 0 255
0.447566 -0.056053 0.008997 187 0 255
0.455588 -0.000156 0.302560 197 0 255
0.434313 -0.020052 -0.000209 170 0 255
0.300090 0.079096 0.152512 0 0 255
0.297669 0.026356 0.221886 0 2 255
0.490510 0.011630 0.004620 242 0 255
0.453402 0.009880 0.303481 195 0 255
0.499196 -0.137317 0.113003 253 0 255
0.278838 0.040689 0.125567 0 26 255
0.412395 0.094689 0.269393 142 0 255
0.320546 0.095485 0.185019 26 0 255
0.546986 -0.109833 0.081527 255 0 195
0.447460 -0.115020 0.051320 187 0 255
0.448947 0.000266 0.299835 189 0 255
0.472486 0.022937 0.000975 219 0 255
0.446978 0.073461 0.280189 186 0 255
0.558829 -0.047437 0.262527 255 0 180
0.335037 -0.053715 0.252102 44 0 255
0.425268 -0.004213 0.301267 159 0 255
0.402092 -0.034605 0.289777 129 0 255
0.443718 0.008891 -0.002570 182 0 255
0.504104 -0.120254 0.231631 255 0 250
0.386828 -0.005610 0.288112 110 0 255
0.495426 0.033161 0.292152 248 0 255
0.547584 0.081338 0.056204 255 0 195
0.371574 -0.012997 0.016055 91 0 255
0.569419 -0.043231 0.255371 255 0 167
0.448286 0.008126 0.297410 188 0 255
0.530605 -0.073602 0.262032 255 0 216
0.450687 -0.027220 0.294969 191 0 255
0.446912 0.045596 0.293441 186 0 255
0.618742 0.032490 0.185921 255 0 104
0.545358 0.059902 0.260650 255 0 198
0.430109 -0.149529 0.142033 165 0 255
0.492649 0.101543 0.254991 244 0 255
0.426358 0.019605 0.003351 160 0 255
0.398692 -0.001753 0.004969 125 0 255
0.421753 -0.147772 0.115568 154 0 255
0.572918 0.089752 0.217977 255 0 163
0.305816 0.077018 0.202512 7 0 255
0.277906 0.012677 0.192194 0 27 255
0.318488 -0.032530 0.049728 23 0 255
0.524107 -0.134624 0.169891 255 0 225
0.483927 0.057627 0.012132 233 0 255
0.457841 -0.025388 0.001331 200 0 255
0.393231 -0.123606 0.223959 118 0 255
0.282601 -0.050506 0.120810 0 21 255
0.433821 -0.040175 0.295040 170 0 255
0.362351 0.048065 0.271700 79 0 255
0.560995 0.109624 0.188522 255 0 178
0.395168 -0.076736 0.268160 121 0 255
0.382675 -0.010113 0.011557 105 0 255
0.393909 -0.056433 0.280473 119 0 255
0.357392 0.126220 0.169970 73 0 255
0.592377 -0.079155 0.103354 255 0 138
0.321560 -0.064851 0.062153 27 0 255
0.593686 0.068207 0.205364 255 0 136
0.383128 0.020168 0.012564 105 0 255
0.455262 -0.148042 0.121112 197 0 255
0.501262 -0.141427 0.177304 255 0 254
0.415017 -0.000322 0.297123 146 0 255
0.593884 -0.093230 0.168264 255 0 136
0.440395 0.079509 0.021178 178 0 255
0.305967 0.075359 0.094334 7 0 255
0.523064 -0.043819 0.022343 255 0 226
0.590273 -0.088349 0.156212 255 0 140
0.425095 -0.052231 0.289075 159 0 255
0.454782 -0.004436 0.299906 196 0 255
0.575015 0.064520 0.237466 255 0 160
0.545818 -0.092123 0.061448 255 0 197
0.406523 0.085874 0.032512 135 0 255
0.515412 0.109783 0.240142 255 0 236
0.459001 0.149127 0.151378 202 0 255
0.295903 0.068704 0.187778 0 5 255
0.449354 0.141774 0.190120 189 0 255
0.401011 0.088279 0.262437 128 0 255
0.499080 0.047751 0.284731 253 0 255
0.420347 0.083606 0.272724 153 0 255
0.422182 -0.010693 0.302123 155 0 255
0.357104 0.029966 0.267232 72 0 255
0.448221 0.003932 0.302059 188 0 255
0.446874 -0.138020 0.093874 186 0 255
0.570878 -0.080758 0.230178 255 0 165
0.450436 -0.012432 0.000082 191 0 255
0.400163 0.076615 0.276515 127 0 255
0.445596 -0.134371 0.219549 185 0 255
0.543632 0.111460 0.215562 255 0 200
0.457365 0.001985 0.300717 200 0 255
0.405464 0.058706 0.019025 134 0 255
0.454516 -0.013909 0.297682 196 0 255
0.452865 0.028311 0.000770 194 0 255
0.506883 0.019669 0.010445 255 0 246
0.568749 0.110493 0.134842 255 0 168
0.561728 -0.117756 0.129437 255 0 177
0.346132 -0.096713 0.079463 58 0 255
0.444039 0.139764 0.201179 183 0 255
0.299430 -0.045917 0.081564 0 0 255
0.427354 -0.003345 0.299390 161 0 255
0.429522 -0.025852 0.294968 164 0 255
0.467847 0.148972 0.165410 213 0 255
0.570277 -0.111178 0.129431 255 0 166
0.425585 0.049224 0.009390 159 0 255
0.431649 -0.045950 0.292911 167 0 255
0.546898 0.006720 0.023171 255 0 196
0.369356 0.067376 0.272419 88 0 255
0.346040 0.113612 0.200757 58 0 255
0.304721 -0.033611 0.230939 6 0 255
0.602790 0.062788 0.196366 255 0 125
0.468087 -0.066279 0.286682 213 0 255
0.485350 0.144453 0.148015 235 0 255
0.402082 -0.081178 0.028472 129 0 255
0.506652 -0.140560 0.177704 255 0 247
0.280439 -0.060318 0.155764 0 24 255
0.441424 -0.070456 0.013014 179 0 255
0.373514 -0.100912 0.059763 93 0 255
0.344037 0.120337 0.152635 56 0 255
0.494709 -0.095844 0.255596 247 0 255
0.433532 0.051124 0.010243 169 0 255
0.289483 -0.062695 0.114201 0 13 255
0.444860 -0.097067 0.268262 184 0 255
0.352172 0.081512 0.246026 66 0 255
0.414985 0.079138 0.025367 146 0 255
0.424267 0.005870 0.299093 158 0 255
0.450493 -0.007847 0.003002 191 0 255
0.514262 -0.027688 0.288147 255 0 237
0.347105 -0.025705 0.030043 60 0 255
0.357791 -0.118967 0.196694 73 0 255
0.596513 -0.084330 0.156076 255 0 133
0.506854 0.033994 0.009773 255 0 246
0.466391 0.146316 0.193271 211 0 255
0.403006 -0.142179 0.131708 131 0 255
0.465413 -0.021729 0.302162 210 0 255
0.452399 0.002730 0.299068 193 0 255
0.343017 0.051104 0.259473 54 0 255
0.580305 0.072133 0.070358 255 0 153
0.389571 0.020310 0.290329 113 0 255
0.456844 0.052323 0.290871 199 0 255
0.405013 0.139493 0.190663 133 0 255
0.471683 -0.130647 0.083162 218 0 255
0.576564 0.050969 0.058141 255 0 158
0.495889 -0.071264 0.281209 249 0 255
0.405404 0.017862 0.296761 134 0 255
0.423496 -0.015497 0.003723 157 0 255
0.562896 0.057051 0.253051 255 0 175
0.407879 0.054706 0.017075 137 0 255
0.512144 0.030327 0.012505 255 0 240
0.562938 -0.021465 0.037007 255 0 175
0.484824 -0.072357 0.281139 235 0 255
0.363150 0.020700 0.024621 80 0 255
0.471092 0.095252 0.038889 217 0 255
0.607571 -0.058635 0.103350 255 0 118
0.363489 0.106428 0.227683 80 0 255
0.520363 0.090920 0.250789 255 0 229
0.387417 -0.016839 0.287367 111 0 255
0.618572 -0.052948 0.146401 255 0 105
0.622487 0.001203 0.109910 255 0 100
0.461530 0.134029 0.213071 205 0 255
0.618576 -0.057046 0.159332 255 0 105
0.526961 0.120101 0.209692 255 0 221
0.576419 0.090230 0.088565 255 0 158
0.401096 -0.023732 0.010230 128 0 255
0.505569 -0.057938 0.280859 255 0 248
0.286836 0.022131 0.206413 0 16 255
0.526416 -0.002849 0.286241 255 0 222
0.378146 -0.123314 0.094282 99 0 255
0.572217 0.045604 0.051459 255 0 163
0.487953 -0.001098 0.001910 239 0 255
0.331583 0.063955 0.245310 40 0 255
0.444620 0.021383 0.004663 183 0 255
0.418787 -0.009941 0.296621 151 0 255
0.394596 0.134799 0.102776 120 0 255
0.479594 0.016695 0.295085 228 0 255
0.506857 -0.001120 0.005271 255 0 246
0.279580 0.047721 0.135930 0 25 255
0.529453 -0.108235 0.074189 255 0 218
0.369045 -0.030923 0.020266 87 0 255
0.535994 -0.001235 0.287580 255 0 209
0.443055 0.018692 0.297614 181 0 255
0.439525 0.053735 0.011310 177 0 255
0.529500 0.107608 0.231068 255 0 218
0.489845 0.048726 0.285162 241 0 255
0.412625 0.144448 0.164824 143 0 255
0.494959 -0.140383 0.104253 247 0 255
0.467039 -0.006127 0.299754 212 0 255
0.587386 -0.019895 0.246804 255 0 144
0.452848 0.015073 0.298711 194 0 255
0.575694 -0.102779 0.188786 255 0 159
0.422985 0.044596 0.007197 156 0 255
0.456017 0.005333 0.001931 198 0 255
0.561529 -0.097748 0.085382 255 0 177
0.392253 -0.055186 0.283525 117 0 255
0.477200 0.041089 0.003818 225 0 255
0.287684 0.064286 0.143587 0 15 255
0.428981 0.071137 0.282866 164 0 255
0.444194 -0.036421 0.003886 183 0 255
0.336593 0.031977 0.041574 46 0 255
0.583852 -0.005635 0.052200 255 0 149
0.578340 0.041335 0.058425 255 0 156
0.382428 0.071524 0.275751 104 0 255
0.341057 0.012676 0.271840 52 0 255
0.298954 -0.006166 0.067668 0 1 255
0.403368 0.084684 0.265504 131 0 255
0.428476 -0.146272 0.177148 163 0 255
0.529937 -0.067239 0.029965 255 0 217
0.554446 -0.038059 0.034563 255 0 186
0.507293 -0.137559 0.171127 255 0 246
0.513506 -0.072932 0.029115 255 0 238
0.367530 -0.024208 0.017755 85 0 255
0.523848 -0.120099 0.077375 255 0 225
0.411450 0.093064 0.263343 141 0 255
0.340989 0.067857 0.248987 52 0 255
0.388811 0.110401 0.228920 113 0 255
0.390628 0.010951 0.291914 115 0 255
0.419115 0.110555 0.247168 151 0 255
0.561853 -0.021412 0.267592 255 0 177
0.378135 0.141044 0.170655 99 0 255
0.493168 0.026300 0.005237 245 0 255
0.394140 -0.009318 0.290011 119 0 255
0.582101 0.040236 0.055326 255 0 151
0.565866 0.081140 0.063636 255 0 171
0.459024 0.042977 0.291601 202 0 255
0.408587 0.010399 0.007106 138 0 255
0.288710 0.060258 0.118873 0 14 255
0.501544 -0.131621 0.215915 255 0 253
0.443616 -0.101733 0.044185 182 0 255
0.334583 0.046397 0.253306 44 0 255
0.372525 0.107316 0.063986 92 0 255
0.440834 0.019469 0.297920 179 0 255
0.462564 -0.071641 0.015009 206 0 255
0.617665 0.042597 0.173145 255 0 106
0.614836 0.011870 0.086357 255 0 109
0.482621 -0.094306 0.265200 232 0 255
0.304575 0.021920 0.070899 5 0 255
0.530676 0.070145 0.035184 255 0 216
0.466969 0.147805 0.164416 212 0 255
0.606101 -0.056885 0.095982 255 0 120
0.559867 -0.113291 0.168229 255 0 179
0.434466 -0.045518 0.010286 171 0 255
0.270192 0.015899 0.149605 0 37 255
0.362485 -0.010377 0.014919 79 0 255
0.555278 -0.012790 0.029395 255 0 185
0.617039 -0.033146 0.191727 255 0 106
0.475906 0.096579 0.261911 223 0 255
0.517930 -0.132218 0.197560 255 0 232
0.482955 0.077052 0.019656 232 0 255
0.477991 0.094924 0.259925 226 0 255
0.372615 -0.134308 0.136386 92 0 255
0.363987 0.046649 0.025594 81 0 255
0.596133 -0.052575 0.215302 255 0 133
0.590919 0.073471 0.085985 255 0 140
0.326305 -0.007541 0.260084 33 0 255
0.503955 -0.028064 0.291839 255 0 250
0.540845 -0.051746 0.030474 255 0 203
0.479288 0.035446 0.289707 227 0 255
0.356253 0.085287 0.243727 71 0 255
0.390683 -0.046407 0.014709 115 0 255
0.532244 0.112737 0.217030 255 0 214
0.467183 -0.003776 0.000346 212 0 255
0.459856 -0.004382 0.000378 203 0 255
0.516125 0.097761 0.250737 255 0 235
0.465200 0.014137 0.301142 210 0 255
0.575103 0.063181 0.060257 255 0 160
0.597975 -0.081479 0.173646 255 0 131
0.471319 0.049363 0.294512 217 0 255
0.323918 0.058331 0.063546 30 0 255
0.432872 0.004728 0.297360 169 0 255
0.395119 -0.033665 0.010751 121 0 255
0.516377 0.028186 0.286082 255 0 234
0.461863 0.058880 0.287632 205 0 255
0.534677 -0.033137 0.276629 255 0 211
0.468541 -0.010131 -0.000629 214 0 255
0.480144 -0.121584 0.062773 229 0 255
0.553689 0.011142 0.028435 255 0 187
0.371403 0.127771 0.200021 90 0 255
0.341832 -0.096188 0.223243 53 0 255
0.428932 0.102906 0.265083 164 0 255
0.602748 -0.078837 0.159616 255 0 125
0.332344 -0.113538 0.125536 41 0 255
0.596497 0.060519 0.089542 255 0 133
0.563298 -0.056827 0.254237 255 0 175
0.477364 -0.002966 0.001887 225 0 255
0.531479 0.035858 0.278361 255 0 215
0.431087 -0.007186 -0.002223 166 0 255
0.447936 0.009745 0.300533 188 0 255
0.308090 0.090487 0.160458 10 0 255
0.515551 0.118713 0.225766 255 0 235
0.294206 -0.069698 0.174640 0 7 255
0.619259 -0.039455 0.115046 255 0 104
0.268935 -0.003199 0.183185 0 39 255
0.602028 0.072458 0.188183 255 0 126
0.354316 -0.076678 0.052994 69 0 255
0.367394 0.104069 0.065607 85 0 255
0.502629 -0.060887 0.020317 255 0 252
0.331882 0.034602 0.258228 40 0 255
0.506189 0.133376 0.099461 255 0 247
0.517015 0.136861 0.109321 255 0 234
0.468020 -0.133653 0.206734 213 0 255
0.432798 0.148876 0.155882 168 0 255
0.466925 -0.123944 0.233747 212 0 255
0.471507 0.063020 0.285538 218 0 255
0.399917 0.084043 0.265988 127 0 255
0.391231 0.009831 0.291595 116 0 255
0.591594 -0.042143 0.067411 255 0 139
0.593658 -0.054365 0.076220 255 0 136
0.457594 0.024342 0.002175 200 0 255
0.365482 0.086160 0.054855 83 0 255
0.466015 0.016364 0.299720 211 0 255
0.385872 -0.003951 0.008718 109 0 255
0.380771 0.016086 0.014843 102 0 255
0.594141 -0.085662 0.179366 255 0 136
0.606480 -0.064467 0.111763 255 0 120
0.440937 0.007740 0.001365 179 0 255
0.270426 0.007785 0.134540 0 37 255
0.490750 -0.024295 0.003762 242 0 255
0.470916 -0.034504 0.291369 217 0 255
0.551191 0.001609 0.274567 255 0 190
0.372645 0.133421 0.177515 92 0 255
0.295425 0.066545 0.112367 0 5 255
0.459094 0.082161 0.025907 202 0 255
0.451631 0.005360 0.002429 192 0 255
0.612984 0.031945 0.200329 255 0 112
0.435742 -0.014865 0.295547 172 0 255
0.443747 0.089088 0.031431 182 0 255
0.612044 0.045781 0.103979 255 0 113
0.463932 0.091476 0.273672 208 0 255
0.507977 -0.144420 0.151275 255 0 245
0.524709 -0.087686 0.048379 255 0 224
0.331803 0.012562 0.038030 40 0 255
0.293647 0.075661 0.151124 0 7 255
0.596191 -0.016728 0.234630 255 0 133
0.453667 0.016285 0.002967 195 0 255
0.480914 0.122858 0.076505 230 0 255
0.406912 0.137823 0.194689 136 0 255
0.514897 0.102027 0.246958 255 0 236
0.351180 0.076539 0.051754 65 0 255
0.555079 -0.051144 0.260026 255 0 185
0.382037 -0.051178 0.280449 104 0 255
0.296880 0.079038 0.134129 0 3 255
0.582395 -0.046891 0.245906 255 0 150
0.612614 0.042863 0.091039 255 0 112
0.464207 0.054441 0.290242 208 0 255
0.305422 -0.049872 0.078186 7 0 255
0.343553 -0.077859 0.246054 55 0 255
0.451243 -0.001763 0.301513 192 0 255
0.390279 0.031654 0.287999 114 0 255
0.426828 -0.023248 0.003823 161 0 255
0.430179 -0.058005 0.012592 165 0 255
0.374493 -0.076839 0.264373 94 0 255
0.401559 0.082196 0.037269 129 0 255
0.593004 0.080268 0.096001 255 0 137
0.433937 0.004876 -0.001056 170 0 255
0.568059 0.100070 0.207936 255 0 169
0.594507 -0.039673 0.062376 255 0 135
0.413450 0.001796 0.297822 144 0 255
0.379485 0.129631 0.193874 101 0 255
0.451468 -0.014694 0.003787 192 0 255
0.272801 -0.000752 0.134195 0 34 255
0.399334 0.109385 0.238674 126 0 255
0.477114 -0.052380 0.290112 225 0 255
0.547114 -0.086128 0.060242 255 0 195
0.374771 -0.116117 0.082754 95 0 255
0.610518 0.039850 0.205859 255 0 115
0.424735 -0.007937 0.004485 158 0 255
0.453996 -0.011007 0.297661 195 0 255
0.545432 0.090192 0.236307 255 0 197
0.455220 0.037940 0.000176 197 0 255
0.561147 -0.086849 0.232376 255 0 177
0.574926 0.013922 0.255056 255 0 160
0.455152 -0.147920 0.134148 197 0 255
0.355546 0.009231 0.022894 70 0 255
0.396924 0.012527 0.289726 123 0 255
0.482522 0.001869 0.000416 232 0 255
0.494484 -0.085284 0.032781 247 0 255
0.385624 0.063453 0.276263 108 0 255
0.315667 -0.031464 0.057441 20 0 255
0.372341 -0.129802 0.204232 92 0 255
0.396110 -0.137158 0.197346 122 0 255
0.560484 -0.027111 0.030264 255 0 178
0.430428 -0.000739 -0.000300 165 0 255
0.392039 0.033197 0.289425 117 0 255
0.619562 -0.044169 0.184019 255 0 103
0.341995 -0.116980 0.159481 53 0 255
0.398984 0.133493 0.208751 125 0 255
0.565233 0.100784 0.211850 255 0 172
0.465637 -0.020027 0.298912 210 0 255
0.353087 0.092821 0.068060 67 0 255
0.355173 -0.125509 0.179922 70 0 255
0.346405 0.013442 0.267547 59 0 255
0.484510 0.078875 0.024129 234 0 255
0.364677 -0.057745 0.026485 82 0 255
0.618353 0.057650 0.157695 255 0 105
0.326194 0.065243 0.238100 33 0 255
0.295801 -0.040065 0.085185 0 5 255
0.317681 0.044016 0.243941 22 0 255
0.447500 -0.103365 0.262052 187 0 255
0.514064 -0.097231 0.051647 255 0 237
0.451520 -0.018631 0.299048 192 0 255
0.499401 0.008415 0.292040 253 0 255
0.455393 0.002178 0.302432 197 0 255
0.368056 -0.014029 0.284821 86 0 255
0.487413 -0.012068 0.299245 238 0 255
0.451964 0.001724 -0.003227 193 0 255
0.528582 -0.098194 0.240505 255 0 219
0.424467 0.061058 0.282499 158 0 255
0.334323 0.047306 0.258560 43 0 255
0.419062 0.007078 0.003906 151 0 255
0.547575 0.122961 0.141552 255 0 195
0.610752 0.023832 0.208772 255 0 114
0.513961 -0.015384 0.016136 255 0 237
0.460342 0.141968 0.197919 203 0 255
0.457999 0.132787 0.228062 200 0 255
0.542685 0.045317 0.268404 255 0 201
0.599500 -0.058023 0.203559 255 0 129
0.318520 -0.058968 0.231405 23 0 255
0.375699 -0.110120 0.073136 96 0 255
0.567669 -0.063147 0.241948 255 0 169
0.345879 0.117939 0.112349 58 0 255
0.425169 -0.022730 0.295161 159 0 255
0.550403 0.017236 0.269577 255 0 191
0.515993 0.129612 0.190202 255 0 235
0.468454 -0.024003 0.004511 214 0 255
0.469757 -0.135732 0.202163 215 0 255
0.358335 0.104215 0.074566 74 0 255
0.358660 0.071857 0.250855 74 0 255
0.382872 -0.011222 0.288486 105 0 255
0.481156 0.001529 0.298831 230 0 255
0.458276 0.120294 0.235241 201 0 255
0.473871 0.071509 0.281320 221 0 255
0.449217 0.077653 0.278689 189 0 255
0.491128 -0.101955 0.042796 243 0 255
0.451930 0.006106 0.297681 193 0 255
0.513322 0.137311 0.124898 255 0 238
0.282922 -0.005318 0.202818 0 21 255
0.571288 -0.110891 0.149035 255 0 165
0.457652 0.150547 0.117096 200 0 255
0.583468 0.055365 0.231415 255 0 149
0.363875 0.095816 0.238930 81 0 255
0.446989 -0.111237 0.050635 186 0 255
0.385242 -0.019394 0.008875 108 0 255
0.492030 -0.078827 0.270773 244 0 255
0.503194 -0.011800 0.293614 255 0 251
0.463257 -0.044675 0.005032 207 0 255
0.320904 -0.081591 0.221626 26 0 255
0.274059 0.008347 0.128756 0 32 255
0.614833 0.033871 0.216902 255 0 109
0.520991 -0.003688 0.291985 255 0 229
0.320521 0.095346 0.109093 26 0 255
0.553063 0.122830 0.141290 255 0 188
0.395485 -0.077962 0.270867 121 0 255
0.411503 0.141032 0.171435 141 0 255
0.359377 -0.042972 0.027189 75 0 255
0.299944 -0.074607 0.103807 0 0 255
0.398254 0.011566 0.295839 125 0 255
0.540122 -0.123805 0.129683 255 0 204
0.435119 0.117913 0.060404 171 0 255
0.346313 0.029532 0.029147 59 0 255
0.290716 -0.031806 0.090129 0 11 255
0.405681 -0.059637 0.281444 134 0 255
0.480233 -0.115614 0.058523 229 0 255
0.332927 0.077890 0.072696 42 0 255
0.442073 -0.009609 0.299320 180 0 255
0.551105 0.117602 0.189139 255 0 190
0.589104 -0.052001 0.226953 255 0 142
0.336407 0.086962 0.075417 46 0 255
0.436921 -0.091850 0.265010 174 0 255
0.619112 0.017568 0.107722 255 0 104
0.462985 0.035052 0.008985 207 0 255
0.342999 0.007561 0.031748 54 0 255
0.477027 -0.026395 0.003769 225 0 255
0.437360 -0.002072 0.003236 174 0 255
0.456803 -0.000228 0.300010 199 0 255
0.281282 0.009966 0.090523 0 23 255
0.277738 0.008724 0.190142 0 28 255
0.505269 0.047712 0.012659 255 0 248
0.493437 -0.100880 0.255338 245 0 255
0.452558 0.011858 -0.000213 194 0 255
0.587787 -0.082151 0.097564 255 0 144
0.542518 -0.049532 0.029850 255 0 201
0.493661 -0.012094 0.294418 246 0 255
0.350102 -0.011810 0.269370 63 0 255
0.394230 -0.092511 0.040899 119 0 255
0.456174 -0.009037 0.300703 198 0 255
0.513298 0.059118 0.023172 255 0 238
0.442076 -0.005494 0.296240 180 0 255
0.602295 0.029995 0.078644 255 0 125
0.284932 0.002080 0.214022 0 18 255
0.545178 0.117531 0.096834 255 0 198
0.508871 0.112436 0.067137 255 0 244
0.348069 0.100157 0.221542 61 0 255
0.398230 0.022144 0.286867 124 0 255
0.419950 -0.022080 0.292850 152 0 255
0.602648 0.063596 0.108121 255 0 125
0.269852 -0.004050 0.141924 0 38 255
0.503021 0.098274 0.043866 255 0 251
0.291220 -0.068548 0.143239 0 10 255
0.336899 -0.112169 0.185134 47 0 255
0.290396 -0.050317 0.201832 0 12 255
0.448753 -0.011179 0.295599 189 0 255
0.368094 0.109833 0.222182 86 0 255
0.452115 -0.009168 0.001115 193 0 255
0.386031 0.022530 0.013907 109 0 255
0.300152 0.013064 0.228487 0 0 255
0.347221 -0.114235 0.106821 60 0 255
0.531549 0.008759 0.019357 255 0 215
0.347983 -0.125497 0.176521 61 0 255
0.444560 -0.008903 0.297408 183 0 255
0.434980 0.032130 0.297098 171 0 255
0.601935 0.076309 0.147494 255 0 126
0.462129 0.010730 -0.001444 206 0 255
0.582674 -0.057902 0.062151 255 0 150
0.434198 -0.029670 0.296279 170 0 255
0.522618 0.063093 0.271865 255 0 226
0.373865 0.074741 0.035274 94 0 255
0.380323 -0.038220 0.017138 102 0 255
0.535931 -0.117321 0.099609 255 0 210
0.606257 0.031205 0.084848 255 0 120
0.453212 0.013738 0.300859 194 0 255
0.521772 -0.051614 0.019470 255 0 228
0.560266 0.007459 0.030445 255 0 179
0.490248 0.104597 0.256185 241 0 255
0.587899 -0.033785 0.059851 255 0 143
0.369161 -0.059853 0.265532 88 0 255
0.446170 0.016997 0.302804 185 0 255
0.546386 0.034877 0.270720 255 0 196
0.543661 0.017201 0.274965 255 0 200
0.457548 0.131104 0.225605 200 0 255
0.581204 -0.098169 0.187381 255 0 152
0.294731 0.075397 0.142663 0 6 255
0.419836 -0.146517 0.158619 152 0 255
0.563696 -0.060023 0.250499 255 0 174
0.434964 0.006588 0.300347 171 0 255
0.510378 0.133441 0.101558 255 0 242
0.280385 -0.018392 0.196616 0 24 255
0.572839 -0.067416 0.241084 255 0 163
0.479174 -0.056060 0.015901 227 0 255
0.569174 0.041996 0.045425 255 0 167
0.426566 -0.061691 0.012649 160 0 255
0.285808 -0.065907 0.150357 0 17 255
0.513492 -0.032506 0.289432 255 0 238
0.554885 0.082883 0.060660 255 0 185
0.342096 -0.018505 0.270688 53 0 255
0.579781 -0.104277 0.177537 255 0 154
0.417125 0.017098 0.297842 148 0 255
0.354355 0.010770 0.026706 69 0 255
0.514356 0.024441 0.287779 255 0 237
0.440091 0.042740 0.007402 178 0 255
0.414121 0.051601 0.013878 145 0 255
0.618400 -0.051531 0.164090 255 0 105
0.424183 0.103680 0.045549 157 0 255
0.291092 0.035272 0.092286 0 11 255
0.397912 -0.076268 0.025051 124 0 255
0.538194 0.125884 0.182533 255 0 207
0.339121 0.008480 0.032567 49 0 255
0.435815 -0.147540 0.170711 172 0 255
0.471237 -0.022575 0.000302 217 0 255
0.322114 -0.106399 0.152141 28 0 255
0.363830 -0.128824 0.163979 81 0 255
0.526955 0.066990 0.032627 255 0 221
0.541233 -0.026929 0.025484 255 0 203
0.568668 0.107403 0.122321 255 0 168
0.466348 -0.079271 0.277968 211 0 255
0.434579 0.144545 0.162887 171 0 255
0.464437 -0.007719 -0.000087 209 0 255
0.428342 -0.100803 0.042358 163 0 255
0.451909 -0.085246 0.025809 193 0 255
0.453985 0.016763 0.300800 195 0 255
0.277660 0.051972 0.167888 0 28 255
0.330080 -0.088347 0.082711 38 0 255
0.461817 -0.078016 0.018682 205 0 255
0.473490 0.015819 0.298259 220 0 255
0.525792 -0.015625 0.018346 255 0 222
0.590735 -0.094985 0.123960 255 0 140
0.438348 0.085877 0.273978 175 0 255
0.517277 -0.114784 0.231580 255 0 233
0.314154 -0.013642 0.242842 18 0 255
0.272802 0.033940 0.134661 0 34 255
0.440178 0.020047 0.301134 178 0 255
0.372226 -0.030240 0.285228 91 0 255
0.437691 -0.085891 0.025118 175 0 255
0.387501 0.029673 0.287753 111 0 255
0.365456 -0.074274 0.261045 83 0 255
0.393092 -0.136775 0.170824 118 0 255
0.407411 -0.145045 0.142641 136 0 255
0.566149 0.034297 0.040030 255 0 171
0.563402 -0.114031 0.174429 255 0 175
0.341568 0.023731 0.031998 52 0 255
0.437735 0.139687 0.095041 175 0 255
0.453125 0.051005 0.291257 194 0 255
0.365149 0.007897 0.284272 82 0 255
0.582303 -0.094793 0.179545 255 0 151
0.330872 0.097980 0.199135 39 0 255
0.449807 -0.110972 0.045065 190 0 255
0.594744 0.082117 0.107920 255 0 135
0.282848 0.018922 0.201901 0 21 255
0.544974 -0.002464 0.282002 255 0 198
0.463948 -0.097553 0.261408 208 0 255
0.491580 0.139485 0.112140 243 0 255
0.277920 -0.005503 0.188472 0 27 255
0.470959 0.150042 0.140739 217 0 255
0.369330 0.040142 0.280199 88 0 255
0.479495 -0.130538 0.078836 228 0 255
0.464064 -0.066888 0.016029 208 0 255
0.464871 0.106822 0.254409 209 0 255
0.609584 -0.071410 0.153450 255 0 116
0.437554 -0.006886 0.001290 174 0 255
0.332500 0.088807 0.225737 41 0 255
0.276837 -0.002702 0.104972 0 29 255
0.409291 -0.025707 0.294276 139 0 255
0.287593 -0.050788 0.100380 0 15 255
0.404030 0.001173 0.292358 132 0 255
0.426616 0.000233 -0.002673 161 0 255
0.510900 0.105780 0.054074 255 0 241
0.495423 -0.086425 0.030211 248 0 255
0.311911 -0.027965 0.061108 15 0 255
0.570018 0.109050 0.106430 255 0 166
0.469893 -0.150431 0.174356 216 0 255
0.520454 -0.024102 0.016949 255 0 229
0.474152 -0.005995 0.002394 221 0 255
0.598670 -0.000041 0.084350 255 0 130
0.695606 -0.021069 0.117292 255 0 7
0.567468 -0.022238 0.093358 255 0 169
0.547077 -0.013202 0.132212 255 0 195
0.551909 0.013748 0.105232 255 0 189
0.635921 0.041901 0.142089 255 0 82
0.683645 0.003070 0.140639 255 0 22
0.621743 0.052231 0.110244 255 0 100
0.539074 -0.000327 0.122727 255 0 206
0.565348 0.032033 0.109535 255 0 172
0.561184 0.013851 0.143830 255 0 177
0.692915 -0.005008 0.138810 255 0 10
0.609229 0.007512 0.158191 255 0 116
0.605649 0.003555 0.161308 255 0 121
0.658415 0.026049 0.148114 255 0 54
0.638076 0.002150 0.156479 255 0 80
0.619973 -0.013276 0.158886 255 0 103
0.580672 -0.009381 0.084200 255 0 153
0.617184 -0.005309 0.160289 255 0 106
0.657868 0.036209 0.100046 255 0 55
0.564005 -0.017140 0.141327 255 0 174
0.618098 0.018221 0.084327 255 0 105
0.630664 0.050748 0.116786 255 0 89
0.683685 0.004076 0.142323 255 0 22
0.676246 0.032856 0.119247 255 0 31
0.591593 0.041935 0.136478 255 0 139
0.680497 0.034894 0.116052 255 0 26
0.650591 -0.003153 0.157722 255 0 64
0.619007 0.004499 0.082212 255 0 104
0.672780 0.037280 0.126805 255 0 36
0.642854 0.040294 0.134980 255 0 74
0.567741 -0.018858 0.096377 255 0 169
0.686617 0.015286 0.134264 255 0 18
0.644035 -0.019490 0.087515 255 0 72
0.698991 -0.015151 0.124340 255 0 2
0.619821 0.033499 0.095678 255 0 103
0.594304 0.004882 0.160434 255 0 135
0.657003 0.002360 0.085728 255 0 56
0.584682 -0.027948 0.094391 255 0 148
0.577382 0.015723 0.151700 255 0 157
0.614062 0.020726 0.158661 255 0 110
0.641976 0.043554 0.139178 255 0 75
0.613753 -0.005474 0.080382 255 0 111
0.564435 0.016964 0.150485 255 0 173
0.655858 0.043749 0.124629 255 0 57
0.618322 -0.002498 0.158756 255 0 105
0.549918 -0.019983 0.130029 255 0 192
0.668777 -0.038412 0.108591 255 0 41
0.629976 0.005903 0.081824 255 0 90
0.636218 -0.052650 0.118833 255 0 82
0.598768 -0.025643 0.083773 255 0 130
0.678798 0.035861 0.113088 255 0 28
0.614347 -0.004705 0.160018 255 0 110
0.553355 0.016331 0.146217 255 0 187
0.687957 -0.018938 0.104898 255 0 16
0.627636 0.007986 0.080692 255 0 93
0.601419 -0.015078 0.087258 255 0 126
0.583536 0.021396 0.150274 255 0 149
0.667411 -0.009007 0.150935 255 0 42
0.597069 0.028571 0.151613 255 0 132
0.636880 -0.004576 0.082490 255 0 81
0.646287 -0.013356 0.086864 255 0 69
0.613946 0.032071 0.089521 255 0 110
0.642864 -0.046257 0.132835 255 0 74
0.700504 0.000516 0.119635 255 0 0
0.621375 0.052890 0.126063 255 0 101
0.569732 0.011842 0.145682 255 0 167
0.541688 -0.009005 0.118787 255 0 202
0.619410 0.007420 0.159308 255 0 103
0.650741 0.002568 0.154472 255 0 64
0.624860 0.017118 0.082456 255 0 97
0.608961 0.032794 0.090113 255 0 117
0.545669 0.013603 0.130282 255 0 197
0.659788 0.045510 0.117321 255 0 52
0.669721 -0.031313 0.137164 255 0 40
0.604171 -0.031426 0.092494 255 0 123
0.662645 0.015199 0.085725 255 0 49
0.589514 -0.027607 0.091580 255 0 141
0.588846 -0.032245 0.089575 255 0 142
0.667094 -0.007804 0.150560 255 0 43
0.690639 0.002401 0.137600 255 0 13
0.620432 0.052725 0.122340 255 0 102
0.682117 -0.024139 0.137312 255 0 24
0.671013 -0.011939 0.088556 255 0 38
0.607511 -0.043005 0.142338 255 0 119
0.620893 -0.020074 0.154980 255 0 102
0.684241 0.025965 0.131972 255 0 21
0.615930 -0.000187 0.079814 255 0 108
0.625305 0.032515 0.150788 255 0 96
0.649470 0.041915 0.104085 255 0 65
0.648858 -0.046612 0.129902 255 0 66
0.633049 0.006456 0.159004 255 0 86
0.542881 0.009427 0.120067 255 0 201
0.677479 -0.013442 0.098075 255 0 30
0.650945 0.047484 0.112409 255 0 63
0.653642 -0.003009 0.083469 255 0 60
0.682367 0.001377 0.142500 255 0 23
0.602831 -0.003790 0.159786 255 0 125
0.626959 0.006062 0.082653 255 0 94
0.590677 0.045163 0.134548 255 0 140
0.550037 0.024963 0.114314 255 0 192
0.602308 0.026803 0.089861 255 0 125
0.606460 0.042988 0.140455 255 0 120
0.684434 -0.008153 0.095837 255 0 21
0.637861 0.016384 0.155610 255 0 80
0.614847 -0.037578 0.145503 255 0 109
0.654914 0.000337 0.157733 255 0 58
0.585067 -0.021259 0.086286 255 0 147
0.664039 -0.014883 0.150474 255 0 47
0.606787 0.035531 0.095275 255 0 119
0.627387 0.005194 0.085660 255 0 93
0.576221 -0.040601 0.114858 255 0 158
0.601171 -0.048074 0.115864 255 0 127
0.592860 -0.046864 0.126010 255 0 137
0.588588 0.037891 0.141558 255 0 143
0.620279 0.048343 0.122175 255 0 102
0.695893 -0.010641 0.107721 255 0 6
0.618645 0.004003 0.079999 255 0 104
0.604388 0.001529 0.081515 255 0 123
0.639851 -0.015364 0.081840 255 0 77
0.593286 0.009097 0.082851 255 0 137
0.548877 0.020871 0.125045 255 0 193
0.660992 0.038419 0.100494 255 0 51
0.597545 0.010564 0.084296 255 0 131
0.544991 -0.016086 0.133794 255 0 198
0.631088 -0.001334 0.080271 255 0 89
0.546968 0.016809 0.129370 255 0 196
0.637458 -0.046285 0.105752 255 0 81
0.594924 -0.038298 0.098072 255 0 135
0.613812 -0.003024 0.080164 255 0 111
0.665872 -0.018535 0.148590 255 0 44
0.675579 0.002938 0.091329 255 0 32
0.542905 -0.016147 0.117282 255 0 201
0.633281 -0.038552 0.144267 255 0 86
0.573956 -0.009544 0.090674 255 0 161
0.584983 0.038556 0.117052 255 0 147
0.667237 0.031502 0.100566 255 0 43
0.669377 -0.023910 0.139309 255 0 40
0.540436 0.007659 0.122513 255 0 204
0.676531 -0.028749 0.104787 255 0 31
0.555156 -0.024381 0.129809 255 0 185
0.603437 -0.023208 0.152859 255 0 124
0.626380 -0.003241 0.080454 255 0 95
0.577456 -0.039022 0.116667 255 0 157
0.575760 0.021719 0.096229 255 0 159
0.543375 -0.003437 0.130965 255 0 200
0.642445 -0.042979 0.140341 255 0 74
0.561653 0.031670 0.130050 255 0 177
0.559275 0.034037 0.133772 255 0 180
0.686520 0.026736 0.117136 255 0 18
0.684936 -0.021042 0.113185 255 0 20
0.686739 0.026206 0.118211 255 0 18
0.604230 -0.014907 0.158898 255 0 123
0.549165 0.026299 0.121535 255 0 193
0.586932 0.011836 0.156638 255 0 145
0.607017 -0.019349 0.153190 255 0 119
0.636544 0.009198 0.078862 255 0 82
0.557395 -0.024050 0.104510 255 0 182
0.628722 -0.045155 0.102755 255 0 92
0.658619 -0.041684 0.130463 255 0 54
0.629919 0.011120 0.079670 255 0 90
0.677836 -0.026115 0.104185 255 0 29
0.590475 -0.027448 0.089902 255 0 140
0.671403 -0.030639 0.134884 255 0 37
0.607324 0.001320 0.079092 255 0 119
0.579170 -0.005282 0.084295 255 0 155
0.651130 -0.014406 0.087202 255 0 63
0.650597 -0.016176 0.156965 255 0 64
0.562526 0.009638 0.147788 255 0 176
0.611827 0.037358 0.143898 255 0 113
0.572021 0.022971 0.142581 255 0 164
0.592907 0.017789 0.082264 255 0 137
0.616996 0.002499 0.161024 255 0 107
0.620200 0.014120 0.156366 255 0 102
0.659974 -0.026180 0.147101 255 0 52
0.663498 0.011540 0.152810 255 0 47
0.599077 -0.029244 0.147353 255 0 129
0.641202 0.028650 0.088441 255 0 76
0.576354 0.039521 0.114496 255 0 158
0.624668 0.002868 0.162879 255 0 97
0.609515 0.047389 0.128496 255 0 116
0.628932 -0.044738 0.133746 255 0 91
0.642104 -0.014446 0.154088 255 0 75
0.632592 0.043620 0.098819 255 0 87
0.561102 0.006975 0.093859 255 0 178
0.558240 0.005721 0.095469 255 0 181
0.661385 -0.029965 0.095475 255 0 50
0.616481 -0.002151 0.156755 255 0 107
0.608913 -0.000220 0.084251 255 0 117
0.600770 -0.021325 0.087200 255 0 127
0.631695 -0.011905 0.082991 255 0 88
0.625331 -0.000798 0.160929 255 0 96
0.604608 0.003824 0.078629 255 0 122
0.657630 -0.017839 0.086082 255 0 55
0.619424 -0.026482 0.084109 255 0 103
0.597864 -0.003348 0.157296 255 0 131
0.564059 -0.005593 0.095010 255 0 174
0.614046 0.004106 0.078951 255 0 110
0.553435 -0.006198 0.097583 255 0 187
0.575393 -0.041775 0.111603 255 0 159
0.605326 0.004777 0.081935 255 0 121
0.601258 -0.044112 0.127168 255 0 127
0.665863 -0.036993 0.107849 255 0 44
0.665871 0.040669 0.120948 255 0 44
0.601828 0.001831 0.079771 255 0 126
